-0.1405 0.0907 0.0496 316423.0000 2 4
991.5563 18.6028 -91.8606 316423.0000 99 4
-0.2819 0.0881 0.0440 316424.0000 0 2
991.1855 18.5959 -95.7789 316424.0000 99 2
-0.2705 0.0883 0.0241 316425.0000 0 3
-0.0796 0.0918 0.0049 316425.0000 1 3
990.7994 18.5887 -99.6958 316425.0000 99 3
-0.3869 0.0861 0.0175 316426.0000 0 2
990.3978 18.5812 -103.6111 316426.0000 99 2
989.9808 18.5734 -107.5247 316427.0000 99 1
990.0461 14.6635 108.5248 317172.0000 99 1
-0.4487 0.0671 0.9760 317173.0000 0 2
990.4631 14.6696 104.6110 317173.0000 99 2
-0.1205 0.0719 0.9909 317174.0000 0 2
990.8647 14.6755 100.6957 317174.0000 99 2
-0.3074 0.0692 0.9535 317175.0000 0 2
991.2509 14.6812 96.7789 317175.0000 99 2
-0.4095 0.0676 0.9254 317176.0000 0 3
-0.3480 0.0686 0.9311 317176.0000 1 3
991.6218 14.6867 92.8605 317176.0000 99 3
-0.1111 0.0720 0.9337 317177.0000 0 3
0.4909 0.0809 0.9871 317177.0000 1 3
991.9771 14.6919 88.9408 317177.0000 99 3
0.2468 0.0773 0.9447 317178.0000 0 3
0.4887 0.0809 0.9652 317178.0000 1 3
992.3171 14.6969 85.0197 317178.0000 99 3
0.1530 0.0759 0.9163 317179.0000 0 3
0.3256 0.0785 0.9302 317179.0000 1 3
992.6417 14.7017 81.0972 317179.0000 99 3
-0.0904 0.0723 0.8772 317180.0000 0 3
0.0644 0.0746 0.8891 317180.0000 1 3
0.3815 0.0793 0.9135 317180.0000 2 3
0.2373 0.0772 0.8817 317181.0000 0 1
-0.3847 0.0680 0.8181 317182.0000 0 3
-0.1694 0.0712 0.8329 317182.0000 1 3
993.5229 14.7147 69.3229 317182.0000 99 3
-0.1769 0.0711 0.8134 317183.0000 0 3
0.0787 0.0748 0.8300 317183.0000 1 3
993.7858 14.7186 65.3957 317183.0000 99 3
-0.3380 0.0687 0.7845 317184.0000 0 3
-0.1617 0.0713 0.7953 317184.0000 1 3
0.4451 0.0802 0.8323 317184.0000 2 3
-0.2802 0.0696 0.7694 317185.0000 0 4
-0.1834 0.0710 0.7749 317185.0000 1 4
0.1873 0.0764 0.7961 317185.0000 2 4
994.2651 14.7257 57.5387 317185.0000 99 4
-0.1238 0.0719 0.7591 317186.0000 0 3
0.0904 0.0750 0.7705 317186.0000 1 3
994.4817 14.7288 53.6089 317186.0000 99 3
-0.2296 0.0703 0.7347 317187.0000 0 2
994.6827 14.7318 49.6781 317187.0000 99 2
0.0287 0.0741 0.7276 317188.0000 0 3
0.3451 0.0788 0.7419 317188.0000 1 3
994.8683 14.7345 45.7467 317188.0000 99 3
-0.4825 0.0666 0.6866 317189.0000 0 2
995.0385 14.7370 41.8145 317189.0000 99 2
-0.4794 0.0666 0.6690 317190.0000 0 5
-0.4401 0.0672 0.6704 317190.0000 1 5
-0.4223 0.0675 0.6711 317190.0000 2 5
-0.3899 0.0679 0.6723 317190.0000 3 5
995.1932 14.7393 37.8817 317190.0000 99 5
-0.0587 0.0728 0.6652 317191.0000 0 1
-0.4878 0.0665 0.6331 317192.0000 0 5
-0.3028 0.0692 0.6386 317192.0000 1 5
-0.1112 0.0720 0.6442 317192.0000 2 5
0.1939 0.0765 0.6532 317192.0000 3 5
995.4562 14.7432 30.0144 317192.0000 99 5
-0.1284 0.0718 0.6245 317193.0000 0 3
-0.0922 0.0723 0.6255 317193.0000 1 3
995.5645 14.7448 26.0800 317193.0000 99 3
-0.2822 0.0695 0.6021 317194.0000 0 2
995.6573 14.7462 22.1453 317194.0000 99 2
-0.4129 0.0676 0.5812 317195.0000 0 4
-0.0253 0.0733 0.5880 317195.0000 1 4
0.0225 0.0740 0.5889 317195.0000 2 4
0.3750 0.0792 0.5951 317195.0000 3 4
-0.2408 0.0701 0.5655 317196.0000 0 4
-0.1240 0.0719 0.5671 317196.0000 1 4
0.3117 0.0783 0.5731 317196.0000 2 4
995.7966 14.7482 14.2750 317196.0000 99 4
-0.4302 0.0673 0.5449 317197.0000 0 4
-0.0047 0.0736 0.5491 317197.0000 1 4
0.1608 0.0761 0.5507 317197.0000 2 4
995.8430 14.7489 10.3394 317197.0000 99 4
-0.2671 0.0697 0.5279 317198.0000 0 5
-0.0328 0.0732 0.5293 317198.0000 1 5
0.1477 0.0759 0.5304 317198.0000 2 5
0.2635 0.0776 0.5310 317198.0000 3 5
0.4734 0.0807 0.5323 317198.0000 4 5
-0.1754 0.0711 0.5095 317199.0000 0 4
-0.1309 0.0718 0.5096 317199.0000 1 4
0.2984 0.0781 0.5104 317199.0000 2 4
0.3862 0.0794 0.5106 317199.0000 3 4
-0.4159 0.0676 0.4910 317200.0000 0 4
-0.0076 0.0736 0.4902 317200.0000 1 4
0.0283 0.0741 0.4901 317200.0000 2 4
995.8895 14.7496 -1.4679 317200.0000 99 4
-0.3833 0.0680 0.4728 317201.0000 0 4
-0.2517 0.0700 0.4720 317201.0000 1 4
-0.1215 0.0719 0.4712 317201.0000 2 4
995.8739 14.7494 -5.4038 317201.0000 99 4
-0.4528 0.0670 0.4553 317202.0000 0 3
0.4282 0.0800 0.4466 317202.0000 1 3
995.8430 14.7489 -9.3395 317202.0000 99 3
-0.4387 0.0672 0.4372 317203.0000 0 3
0.3347 0.0786 0.4266 317203.0000 1 3
995.7966 14.7482 -13.2750 317203.0000 99 3
-0.2397 0.0701 0.4158 317204.0000 0 2
0.1999 0.0766 0.4080 317204.0000 1 2
-0.1479 0.0715 0.3950 317205.0000 0 5
-0.0954 0.0723 0.3939 317205.0000 1 5
-0.0220 0.0734 0.3923 317205.0000 2 5
0.2252 0.0770 0.3870 317205.0000 3 5
995.6573 14.7462 -21.1455 317205.0000 99 5
-0.4172 0.0675 0.3828 317206.0000 0 6
-0.2556 0.0699 0.3787 317206.0000 1 6
0.1668 0.0761 0.3679 317206.0000 2 6
0.2795 0.0778 0.3650 317206.0000 3 6
0.4663 0.0806 0.3603 317206.0000 4 6
995.5645 14.7448 -25.0802 317206.0000 99 6
-0.3574 0.0684 0.3630 317207.0000 0 6
-0.2233 0.0704 0.3591 317207.0000 1 6
0.0183 0.0740 0.3520 317207.0000 2 6
0.0706 0.0747 0.3504 317207.0000 3 6
0.2173 0.0769 0.3461 317207.0000 4 6
0.2515 0.0774 0.3451 317207.0000 5 6
-0.1882 0.0709 0.3391 317208.0000 0 3
0.1739 0.0762 0.3270 317208.0000 1 3
0.3474 0.0788 0.3212 317208.0000 2 3
0.1210 0.0755 0.3086 317209.0000 0 2
995.1932 14.7393 -36.8817 317209.0000 99 2
-0.4180 0.0675 0.3107 317210.0000 0 3
-0.3674 0.0683 0.3086 317210.0000 1 3
995.0385 14.7370 -40.8145 317210.0000 99 3
-0.3607 0.0684 0.2901 317211.0000 0 4
0.0493 0.0744 0.2715 317211.0000 1 4
0.4378 0.0801 0.2539 317211.0000 2 4
994.8683 14.7345 -44.7468 317211.0000 99 4
0.2204 0.0769 0.2432 317212.0000 0 2
994.6827 14.7318 -48.6782 317212.0000 99 2
994.4817 14.7288 -52.6089 317213.0000 99 1
-0.2396 0.0702 0.2283 317214.0000 0 4
-0.0846 0.0724 0.2194 317214.0000 1 4
-0.0602 0.0728 0.2180 317214.0000 2 4
994.2651 14.7257 -56.5388 317214.0000 99 4
-0.3588 0.0684 0.2168 317215.0000 0 2
994.0331 14.7222 -60.4678 317215.0000 99 2
993.7858 14.7186 -64.3958 317216.0000 99 1
0.0063 0.0738 0.1549 317217.0000 0 3
0.4773 0.0807 0.1225 317217.0000 1 3
993.5229 14.7147 -68.3228 317217.0000 99 3
-0.4715 0.0667 0.1700 317218.0000 0 3
0.2612 0.0775 0.1166 317218.0000 1 3
993.2446 14.7106 -72.2489 317218.0000 99 3
-0.4540 0.0670 0.1507 317219.0000 0 3
0.2463 0.0773 0.0969 317219.0000 1 3
992.9509 14.7063 -76.1737 317219.0000 99 3
-0.4901 0.0665 0.1357 317220.0000 0 2
-0.4194 0.0675 0.1299 317220.0000 1 2
-0.4615 0.0669 0.1154 317221.0000 0 4
0.3290 0.0785 0.0484 317221.0000 1 4
0.4918 0.0809 0.0346 317221.0000 2 4
992.3171 14.6969 -84.0199 317221.0000 99 4
-0.2886 0.0694 0.0821 317222.0000 0 4
-0.2563 0.0699 0.0792 317222.0000 1 4
0.1367 0.0757 0.0443 317222.0000 2 4
991.9771 14.6919 -87.9410 317222.0000 99 4
0.2937 0.0780 0.0094 317223.0000 0 2
991.6217 14.6867 -91.8606 317223.0000 99 2
-0.4324 0.0673 0.0586 317224.0000 0 2
-0.3363 0.0687 0.0493 317224.0000 1 2
-0.1006 0.0722 0.0071 317225.0000 0 2
990.8647 14.6755 -99.6958 317225.0000 99 2
-0.4760 0.0667 0.0269 317226.0000 0 3
-0.3325 0.0688 0.0118 317226.0000 1 3
990.4631 14.6696 -103.6111 317226.0000 99 3
990.0461 14.6635 -107.5247 317227.0000 99 1
-0.4914 0.0487 0.9894 317972.0000 0 3
-0.4125 0.0496 0.9980 317972.0000 1 3
990.0960 10.7535 108.5248 317972.0000 99 3
990.5130 10.7580 104.6110 317973.0000 99 1
-0.3968 0.0497 0.9631 317974.0000 0 2
990.9146 10.7623 100.6957 317974.0000 99 2
-0.4637 0.0490 0.9384 317975.0000 0 2
991.3009 10.7665 96.7789 317975.0000 99 2
-0.4796 0.0488 0.9189 317976.0000 0 3
-0.1204 0.0527 0.9522 317976.0000 1 3
991.6717 10.7705 92.8605 317976.0000 99 3
-0.3708 0.0500 0.9106 317977.0000 0 4
0.0154 0.0542 0.9449 317977.0000 1 4
0.0763 0.0549 0.9503 317977.0000 2 4
0.1953 0.0561 0.9609 317977.0000 3 4
-0.2938 0.0509 0.8988 317978.0000 0 3
0.4857 0.0593 0.9649 317978.0000 1 3
992.3671 10.7780 85.0197 317978.0000 99 3
-0.1437 0.0525 0.8923 317979.0000 0 5
-0.0422 0.0536 0.9005 317979.0000 1 5
0.2003 0.0562 0.9201 317979.0000 2 5
0.3645 0.0580 0.9334 317979.0000 3 5
992.6917 10.7815 81.0972 317979.0000 99 5
-0.3875 0.0498 0.8544 317980.0000 0 3
0.1996 0.0562 0.8995 317980.0000 1 3
993.0009 10.7849 77.1735 317980.0000 99 3
-0.4176 0.0495 0.8339 317981.0000 0 3
-0.1631 0.0523 0.8525 317981.0000 1 3
993.2946 10.7880 73.2488 317981.0000 99 3
-0.4967 0.0487 0.8104 317982.0000 0 5
-0.2450 0.0514 0.8277 317982.0000 1 5
0.3150 0.0574 0.8663 317982.0000 2 5
0.3641 0.0580 0.8697 317982.0000 3 5
993.5729 10.7910 69.3229 317982.0000 99 5
-0.4416 0.0493 0.7962 317983.0000 0 4
-0.3689 0.0500 0.8009 317983.0000 1 4
-0.0793 0.0532 0.8197 317983.0000 2 4
993.8358 10.7939 65.3957 317983.0000 99 4
-0.3388 0.0504 0.7844 317984.0000 0 3
0.1488 0.0556 0.8142 317984.0000 1 3
0.1830 0.0560 0.8163 317984.0000 2 3
0.1806 0.0560 0.7957 317985.0000 0 3
0.2191 0.0564 0.7979 317985.0000 1 3
994.3152 10.7991 57.5387 317985.0000 99 3
-0.4634 0.0490 0.7410 317986.0000 0 3
-0.1178 0.0528 0.7594 317986.0000 1 3
994.5317 10.8014 53.6089 317986.0000 99 3
-0.2772 0.0510 0.7323 317987.0000 0 5
-0.1250 0.0527 0.7398 317987.0000 1 5
0.3787 0.0581 0.7646 317987.0000 2 5
0.4875 0.0593 0.7699 317987.0000 3 5
994.7328 10.8036 49.6781 317987.0000 99 5
-0.0309 0.0537 0.7249 317988.0000 0 3
0.0950 0.0551 0.7306 317988.0000 1 3
994.9185 10.8056 45.7467 317988.0000 99 3
0.1872 0.0561 0.7143 317989.0000 0 3
0.3838 0.0582 0.7224 317989.0000 1 3
995.0886 10.8074 41.8145 317989.0000 99 3
-0.4255 0.0494 0.6710 317990.0000 0 3
0.2498 0.0567 0.6962 317990.0000 1 3
995.2433 10.8091 37.8817 317990.0000 99 3
-0.3604 0.0501 0.6551 317991.0000 0 2
995.3826 10.8106 33.9483 317991.0000 99 2
-0.3487 0.0503 0.6372 317992.0000 0 6
0.1755 0.0559 0.6527 317992.0000 1 6
0.2621 0.0569 0.6552 317992.0000 2 6
0.4635 0.0590 0.6612 317992.0000 3 6
0.4893 0.0593 0.6619 317992.0000 4 6
995.5063 10.8119 30.0144 317992.0000 99 6
-0.0828 0.0531 0.6257 317993.0000 0 3
0.0532 0.0546 0.6292 317993.0000 1 3
995.6146 10.8131 26.0800 317993.0000 99 3
-0.3628 0.0501 0.6003 317994.0000 0 5
-0.1454 0.0525 0.6050 317994.0000 1 5
0.0770 0.0549 0.6098 317994.0000 2 5
0.3752 0.0581 0.6163 317994.0000 3 5
995.7075 10.8141 22.1453 317994.0000 99 5
-0.1332 0.0526 0.5861 317995.0000 0 3
0.1602 0.0558 0.5913 317995.0000 1 3
995.7849 10.8149 18.2104 317995.0000 99 3
-0.2494 0.0513 0.5654 317996.0000 0 5
-0.1746 0.0521 0.5664 317996.0000 1 5
-0.0476 0.0535 0.5682 317996.0000 2 5
0.0202 0.0543 0.5691 317996.0000 3 5
0.2317 0.0565 0.5720 317996.0000 4 5
-0.3966 0.0497 0.5453 317997.0000 0 5
-0.3273 0.0505 0.5459 317997.0000 1 5
-0.0151 0.0539 0.5490 317997.0000 2 5
0.3112 0.0574 0.5522 317997.0000 3 5
0.3364 0.0577 0.5525 317997.0000 4 5
-0.4186 0.0495 0.5270 317998.0000 0 3
-0.1185 0.0528 0.5288 317998.0000 1 3
995.9241 10.8164 6.4037 317998.0000 99 3
-0.1878 0.0520 0.5095 317999.0000 0 4
-0.0343 0.0537 0.5098 317999.0000 1 4
0.1707 0.0559 0.5102 317999.0000 2 4
995.9396 10.8166 2.4679 317999.0000 99 4
-0.4964 0.0487 0.4911 318000.0000 0 3
0.4257 0.0586 0.4893 318000.0000 1 3
995.9396 10.8166 -1.4679 318000.0000 99 3
-0.3264 0.0505 0.4724 318001.0000 0 4
0.0040 0.0541 0.4705 318001.0000 1 4
0.2799 0.0571 0.4689 318001.0000 2 4
995.9241 10.8164 -5.4038 318001.0000 99 4
-0.3714 0.0500 0.4545 318002.0000 0 5
-0.1631 0.0523 0.4525 318002.0000 1 5
0.0145 0.0542 0.4507 318002.0000 2 5
0.2499 0.0567 0.4484 318002.0000 3 5
0.3559 0.0579 0.4473 318002.0000 4 5
-0.4752 0.0489 0.4377 318003.0000 0 3
-0.3473 0.0503 0.4360 318003.0000 1 3
995.8467 10.8156 -13.2750 318003.0000 99 3
-0.3738 0.0500 0.4181 318004.0000 0 5
-0.3056 0.0507 0.4169 318004.0000 1 5
-0.1214 0.0527 0.4137 318004.0000 2 5
0.1719 0.0559 0.4085 318004.0000 3 5
995.7849 10.8149 -17.2105 318004.0000 99 5
-0.2125 0.0517 0.3964 318005.0000 0 2
995.7075 10.8141 -21.1455 318005.0000 99 2
-0.4436 0.0492 0.3835 318006.0000 0 4
-0.1630 0.0523 0.3763 318006.0000 1 4
-0.0747 0.0532 0.3741 318006.0000 2 4
995.6146 10.8131 -25.0802 318006.0000 99 4
-0.1939 0.0519 0.3582 318007.0000 0 5
0.0031 0.0541 0.3524 318007.0000 1 5
0.1267 0.0554 0.3488 318007.0000 2 5
0.1664 0.0558 0.3476 318007.0000 3 5
995.5063 10.8119 -29.0147 318007.0000 99 5
-0.3683 0.0501 0.3451 318008.0000 0 3
0.0940 0.0550 0.3297 318008.0000 1 3
995.3826 10.8106 -32.9485 318008.0000 99 3
-0.1022 0.0529 0.3170 318009.0000 0 5
0.2276 0.0565 0.3046 318009.0000 1 5
0.3859 0.0582 0.2987 318009.0000 2 5
0.4665 0.0591 0.2957 318009.0000 3 5
995.2433 10.8091 -36.8817 318009.0000 99 5
0.0145 0.0542 0.2928 318010.0000 0 2
995.0886 10.8074 -40.8145 318010.0000 99 2
994.9185 10.8056 -44.7468 318011.0000 99 1
-0.4019 0.0497 0.2738 318012.0000 0 4
-0.2972 0.0508 0.2687 318012.0000 1 4
0.0328 0.0544 0.2524 318012.0000 2 4
994.7328 10.8036 -48.6782 318012.0000 99 4
-0.0677 0.0533 0.2379 318013.0000 0 3
0.1641 0.0558 0.2256 318013.0000 1 3
994.5317 10.8014 -52.6089 318013.0000 99 3
-0.3678 0.0501 0.2356 318014.0000 0 3
0.1630 0.0558 0.2053 318014.0000 1 3
994.3152 10.7991 -56.5388 318014.0000 99 3
-0.4665 0.0490 0.2233 318015.0000 0 3
0.0116 0.0542 0.1942 318015.0000 1 3
994.0833 10.7966 -60.4678 318015.0000 99 3
0.0084 0.0541 0.1746 318016.0000 0 2
993.8358 10.7939 -64.3958 318016.0000 99 2
-0.3762 0.0500 0.1813 318017.0000 0 6
-0.2623 0.0512 0.1735 318017.0000 1 6
-0.0205 0.0538 0.1568 318017.0000 2 6
0.0439 0.0545 0.1524 318017.0000 3 6
0.2996 0.0573 0.1347 318017.0000 4 6
993.5729 10.7910 -68.3228 318017.0000 99 6
-0.3362 0.0504 0.1601 318018.0000 0 2
-0.1286 0.0526 0.1450 318018.0000 1 2
-0.3133 0.0506 0.1399 318019.0000 0 3
-0.2441 0.0514 0.1346 318019.0000 1 3
993.0009 10.7849 -76.1737 318019.0000 99 3
-0.3200 0.0506 0.1219 318020.0000 0 5
-0.2234 0.0516 0.1141 318020.0000 1 5
0.0765 0.0549 0.0899 318020.0000 2 5
0.2799 0.0571 0.0735 318020.0000 3 5
0.3788 0.0581 0.0655 318020.0000 4 5
-0.4139 0.0496 0.1114 318021.0000 0 4
0.3776 0.0581 0.0443 318021.0000 1 4
0.4167 0.0585 0.0410 318021.0000 2 4
0.4404 0.0588 0.0390 318021.0000 3 4
-0.4693 0.0490 0.0981 318022.0000 0 5
-0.3022 0.0508 0.0833 318022.0000 1 5
-0.2758 0.0511 0.0809 318022.0000 2 5
0.1436 0.0556 0.0437 318022.0000 3 5
992.0272 10.7743 -87.9410 318022.0000 99 5
-0.3929 0.0498 0.0731 318023.0000 0 5
-0.2715 0.0511 0.0618 318023.0000 1 5
-0.1968 0.0519 0.0549 318023.0000 2 5
0.2392 0.0566 0.0145 318023.0000 3 5
991.6716 10.7705 -91.8606 318023.0000 99 5
-0.4088 0.0496 0.0563 318024.0000 0 3
-0.3514 0.0502 0.0508 318024.0000 1 3
991.3009 10.7665 -95.7789 318024.0000 99 3
-0.0762 0.0532 0.0046 318025.0000 0 2
990.9146 10.7623 -99.6958 318025.0000 99 2
-0.4621 0.0490 0.0254 318026.0000 0 2
990.5130 10.7580 -103.6111 318026.0000 99 2
990.0960 10.7535 -107.5247 318027.0000 99 1
990.1306 6.8432 108.5248 318772.0000 99 1
990.5476 6.8460 104.6110 318773.0000 99 1
-0.3765 0.0318 0.9651 318774.0000 0 3
-0.0888 0.0338 0.9941 318774.0000 1 3
990.9492 6.8488 100.6957 318774.0000 99 3
-0.4724 0.0311 0.9375 318775.0000 0 3
-0.3541 0.0319 0.9489 318775.0000 1 3
991.3355 6.8515 96.7789 318775.0000 99 3
-0.3624 0.0319 0.9298 318776.0000 0 2
991.7064 6.8540 92.8605 318776.0000 99 2
992.0618 6.8564 88.9408 318777.0000 99 1
-0.0331 0.0342 0.9209 318778.0000 0 3
0.4323 0.0374 0.9603 318778.0000 1 3
992.4018 6.8588 85.0197 318778.0000 99 3
-0.4902 0.0310 0.8643 318779.0000 0 2
992.7264 6.8610 81.0972 318779.0000 99 2
0.0161 0.0345 0.8854 318780.0000 0 2
993.0356 6.8631 77.1735 318780.0000 99 2
-0.4343 0.0314 0.8327 318781.0000 0 3
-0.0999 0.0337 0.8571 318781.0000 1 3
993.3293 6.8652 73.2488 318781.0000 99 3
0.0020 0.0344 0.8447 318782.0000 0 3
0.3273 0.0366 0.8672 318782.0000 1 3
993.6077 6.8671 69.3229 318782.0000 99 3
-0.3065 0.0323 0.8049 318783.0000 0 4
-0.0981 0.0337 0.8185 318783.0000 1 4
0.0763 0.0349 0.8298 318783.0000 2 4
993.8705 6.8689 65.3957 318783.0000 99 4
-0.4949 0.0310 0.7749 318784.0000 0 4
-0.0675 0.0339 0.8010 318784.0000 1 4
0.2769 0.0363 0.8220 318784.0000 2 4
0.4274 0.0373 0.8312 318784.0000 3 4
994.3500 6.8722 57.5387 318785.0000 99 1
-0.4601 0.0312 0.7412 318786.0000 0 3
-0.1056 0.0337 0.7600 318786.0000 1 3
0.1331 0.0353 0.7727 318786.0000 2 3
0.0088 0.0344 0.7464 318787.0000 0 4
0.2329 0.0360 0.7574 318787.0000 1 4
0.2902 0.0364 0.7602 318787.0000 2 4
994.7676 6.8751 49.6781 318787.0000 99 4
-0.2206 0.0329 0.7163 318788.0000 0 3
-0.1751 0.0332 0.7183 318788.0000 1 3
994.9532 6.8763 45.7467 318788.0000 99 3
-0.2075 0.0330 0.6980 318789.0000 0 4
-0.1772 0.0332 0.6992 318789.0000 1 4
0.1585 0.0355 0.7131 318789.0000 2 4
995.1234 6.8775 41.8145 318789.0000 99 4
-0.4317 0.0314 0.6707 318790.0000 0 4
-0.3646 0.0319 0.6732 318790.0000 1 4
-0.2637 0.0326 0.6770 318790.0000 2 4
995.2781 6.8786 37.8817 318790.0000 99 4
-0.4806 0.0311 0.6511 318791.0000 0 2
995.4173 6.8795 33.9483 318791.0000 99 2
-0.1318 0.0335 0.6436 318792.0000 0 3
0.1444 0.0354 0.6518 318792.0000 1 3
995.5411 6.8804 30.0144 318792.0000 99 3
-0.1732 0.0332 0.6234 318793.0000 0 2
995.6494 6.8811 26.0800 318793.0000 99 2
0.2133 0.0359 0.6128 318794.0000 0 3
0.2999 0.0364 0.6146 318794.0000 1 3
995.7422 6.8818 22.1453 318794.0000 99 3
995.8196 6.8823 18.2104 318795.0000 99 1
-0.0127 0.0343 0.5686 318796.0000 0 3
0.4948 0.0378 0.5756 318796.0000 1 3
995.8815 6.8827 14.2750 318796.0000 99 3
-0.4506 0.0313 0.5447 318797.0000 0 4
-0.1688 0.0332 0.5475 318797.0000 1 4
0.3054 0.0365 0.5522 318797.0000 2 4
995.9279 6.8830 10.3394 318797.0000 99 4
995.9589 6.8832 6.4037 318798.0000 99 1
-0.0570 0.0340 0.5097 318799.0000 0 5
0.1699 0.0356 0.5102 318799.0000 1 5
0.2901 0.0364 0.5104 318799.0000 2 5
0.4787 0.0377 0.5108 318799.0000 3 5
995.9744 6.8834 2.4679 318799.0000 99 5
-0.4805 0.0311 0.4911 318800.0000 0 5
-0.3676 0.0319 0.4909 318800.0000 1 5
0.3270 0.0366 0.4895 318800.0000 2 5
0.3520 0.0368 0.4895 318800.0000 3 5
995.9744 6.8834 -1.4679 318800.0000 99 5
-0.4891 0.0310 0.4734 318801.0000 0 3
-0.2706 0.0325 0.4721 318801.0000 1 3
995.9589 6.8832 -5.4038 318801.0000 99 3
-0.1901 0.0331 0.4527 318802.0000 0 4
0.1902 0.0357 0.4490 318802.0000 1 4
0.4160 0.0372 0.4468 318802.0000 2 4
995.9279 6.8830 -9.3395 318802.0000 99 4
-0.4831 0.0311 0.4378 318803.0000 0 5
-0.4004 0.0316 0.4367 318803.0000 1 5
-0.2433 0.0327 0.4345 318803.0000 2 5
-0.1863 0.0331 0.4338 318803.0000 3 5
995.8815 6.8827 -13.2750 318803.0000 99 5
-0.3660 0.0319 0.4180 318804.0000 0 3
0.0410 0.0347 0.4108 318804.0000 1 3
995.8196 6.8823 -17.2105 318804.0000 99 3
-0.4175 0.0315 0.4009 318805.0000 0 4
-0.3624 0.0319 0.3997 318805.0000 1 4
-0.1655 0.0332 0.3954 318805.0000 2 4
995.7422 6.8818 -21.1455 318805.0000 99 4
-0.3481 0.0320 0.3811 318806.0000 0 3
0.1670 0.0355 0.3679 318806.0000 1 3
995.6494 6.8811 -25.0802 318806.0000 99 3
-0.4586 0.0312 0.3660 318807.0000 0 4
-0.0940 0.0337 0.3553 318807.0000 1 4
0.2151 0.0359 0.3462 318807.0000 2 4
995.5411 6.8804 -29.0147 318807.0000 99 4
-0.2148 0.0329 0.3400 318808.0000 0 4
0.1215 0.0352 0.3288 318808.0000 1 4
0.4138 0.0372 0.3190 318808.0000 2 4
0.4953 0.0378 0.3163 318808.0000 3 4
-0.2542 0.0326 0.3226 318809.0000 0 2
995.2781 6.8786 -36.8817 318809.0000 99 2
-0.2585 0.0326 0.3041 318810.0000 0 2
995.1234 6.8775 -40.8145 318810.0000 99 2
-0.0175 0.0343 0.2745 318811.0000 0 3
0.2425 0.0361 0.2628 318811.0000 1 3
0.4417 0.0374 0.2538 318811.0000 2 3
0.2748 0.0363 0.2405 318812.0000 0 2
994.7675 6.8751 -48.6782 318812.0000 99 2
-0.4379 0.0314 0.2576 318813.0000 0 4
-0.0024 0.0344 0.2345 318813.0000 1 4
0.2245 0.0359 0.2224 318813.0000 2 4
994.5665 6.8737 -52.6089 318813.0000 99 4
0.0512 0.0347 0.2117 318814.0000 0 2
994.3500 6.8722 -56.5388 318814.0000 99 2
-0.4218 0.0315 0.2206 318815.0000 0 4
-0.2402 0.0327 0.2096 318815.0000 1 4
0.0452 0.0347 0.1921 318815.0000 2 4
994.1180 6.8706 -60.4678 318815.0000 99 4
-0.4504 0.0313 0.2044 318816.0000 0 5
-0.2466 0.0327 0.1912 318816.0000 1 5
0.0178 0.0345 0.1740 318816.0000 2 5
0.3037 0.0365 0.1554 318816.0000 3 5
993.8705 6.8689 -64.3958 318816.0000 99 5
-0.0459 0.0341 0.1586 318817.0000 0 3
0.3533 0.0368 0.1311 318817.0000 1 3
993.6077 6.8671 -68.3228 318817.0000 99 3
-0.4719 0.0311 0.1700 318818.0000 0 4
-0.2101 0.0329 0.1510 318818.0000 1 4
0.1634 0.0355 0.1237 318818.0000 2 4
993.3293 6.8652 -72.2489 318818.0000 99 4
-0.2056 0.0330 0.1317 318819.0000 0 3
-0.1071 0.0336 0.1241 318819.0000 1 3
993.0356 6.8631 -76.1737 318819.0000 99 3
-0.2445 0.0327 0.1158 318820.0000 0 5
-0.1312 0.0335 0.1067 318820.0000 1 5
-0.0563 0.0340 0.1006 318820.0000 2 5
-0.0008 0.0344 0.0962 318820.0000 3 5
992.7264 6.8610 -80.0974 318820.0000 99 5
-0.2583 0.0326 0.0982 318821.0000 0 5
-0.1837 0.0331 0.0919 318821.0000 1 5
0.1893 0.0357 0.0603 318821.0000 2 5
0.4906 0.0378 0.0347 318821.0000 3 5
992.4018 6.8588 -84.0199 318821.0000 99 5
-0.2548 0.0326 0.0791 318822.0000 0 4
0.2374 0.0360 0.0354 318822.0000 1 4
0.3442 0.0368 0.0260 318822.0000 2 4
992.0618 6.8564 -87.9410 318822.0000 99 4
-0.2889 0.0324 0.0634 318823.0000 0 3
-0.0307 0.0342 0.0395 318823.0000 1 3
991.7063 6.8540 -91.8606 318823.0000 99 3
-0.1327 0.0335 0.0297 318824.0000 0 2
991.3355 6.8515 -95.7789 318824.0000 99 2
-0.3695 0.0318 0.0342 318825.0000 0 3
-0.0932 0.0337 0.0064 318825.0000 1 3
990.9492 6.8488 -99.6958 318825.0000 99 3
-0.4797 0.0311 0.0273 318826.0000 0 2
990.5476 6.8460 -103.6111 318826.0000 99 2
990.1306 6.8432 -107.5247 318827.0000 99 1
990.1497 2.9328 108.5248 319572.0000 99 1
-0.4500 0.0134 0.9758 319573.0000 0 4
-0.3763 0.0136 0.9835 319573.0000 1 4
-0.3348 0.0137 0.9879 319573.0000 2 4
990.5668 2.9340 104.6110 319573.0000 99 4
990.9684 2.9352 100.6957 319574.0000 99 1
-0.3239 0.0138 0.9519 319575.0000 0 3
-0.1548 0.0143 0.9682 319575.0000 1 3
991.3547 2.9363 96.7789 319575.0000 99 3
-0.2701 0.0139 0.9383 319576.0000 0 4
0.2234 0.0154 0.9840 319576.0000 1 4
0.3795 0.0159 0.9985 319576.0000 2 4
991.7256 2.9374 92.8605 319576.0000 99 4
992.0810 2.9385 88.9408 319577.0000 99 1
-0.0811 0.0145 0.9168 319578.0000 0 2
992.4210 2.9395 85.0197 319578.0000 99 2
-0.1343 0.0143 0.8930 319579.0000 0 4
0.2271 0.0154 0.9222 319579.0000 1 4
0.2541 0.0155 0.9244 319579.0000 2 4
992.7457 2.9404 81.0972 319579.0000 99 4
-0.2620 0.0140 0.8640 319580.0000 0 3
-0.1757 0.0142 0.8706 319580.0000 1 3
0.3333 0.0157 0.9097 319580.0000 2 3
-0.4483 0.0134 0.8317 319581.0000 0 3
-0.2264 0.0141 0.8479 319581.0000 1 3
0.4229 0.0160 0.8952 319581.0000 2 3
0.3309 0.0157 0.8674 319582.0000 0 2
993.6269 2.9430 69.3229 319582.0000 99 2
0.1481 0.0152 0.8345 319583.0000 0 3
0.3979 0.0159 0.8507 319583.0000 1 3
993.8898 2.9438 65.3957 319583.0000 99 3
-0.3898 0.0136 0.7813 319584.0000 0 3
-0.0344 0.0146 0.8030 319584.0000 1 3
994.1372 2.9445 61.4677 319584.0000 99 3
-0.4094 0.0135 0.7620 319585.0000 0 5
-0.3817 0.0136 0.7636 319585.0000 1 5
-0.1412 0.0143 0.7773 319585.0000 2 5
-0.1125 0.0144 0.7790 319585.0000 3 5
994.3693 2.9452 57.5387 319585.0000 99 5
-0.2468 0.0140 0.7525 319586.0000 0 2
994.5858 2.9458 53.6089 319586.0000 99 2
-0.3080 0.0138 0.7308 319587.0000 0 5
-0.1704 0.0142 0.7376 319587.0000 1 5
-0.0544 0.0146 0.7433 319587.0000 2 5
0.2437 0.0155 0.7579 319587.0000 3 5
994.7869 2.9464 49.6781 319587.0000 99 5
-0.4814 0.0133 0.7045 319588.0000 0 5
-0.3925 0.0136 0.7085 319588.0000 1 5
0.1464 0.0152 0.7329 319588.0000 2 5
0.4038 0.0159 0.7445 319588.0000 3 5
994.9725 2.9470 45.7467 319588.0000 99 5
-0.4602 0.0134 0.6875 319589.0000 0 4
-0.4331 0.0135 0.6887 319589.0000 1 4
-0.0535 0.0146 0.7043 319589.0000 2 4
995.1427 2.9475 41.8145 319589.0000 99 4
0.0262 0.0148 0.6878 319590.0000 0 4
0.0927 0.0150 0.6903 319590.0000 1 4
0.2592 0.0155 0.6965 319590.0000 2 4
0.3286 0.0157 0.6991 319590.0000 3 4
-0.4941 0.0133 0.6506 319591.0000 0 2
-0.0016 0.0147 0.6671 319591.0000 1 2
-0.2225 0.0141 0.6409 319592.0000 0 2
995.5604 2.9487 30.0144 319592.0000 99 2
-0.3982 0.0136 0.6176 319593.0000 0 3
-0.0542 0.0146 0.6264 319593.0000 1 3
0.0059 0.0148 0.6280 319593.0000 2 3
-0.4637 0.0134 0.5981 319594.0000 0 3
-0.2426 0.0140 0.6029 319594.0000 1 3
0.1654 0.0152 0.6117 319594.0000 2 3
-0.4505 0.0134 0.5805 319595.0000 0 4
-0.0071 0.0147 0.5884 319595.0000 1 4
0.4194 0.0160 0.5959 319595.0000 2 4
995.8390 2.9495 18.2104 319595.0000 99 4
-0.3903 0.0136 0.5634 319596.0000 0 4
0.3781 0.0158 0.5740 319596.0000 1 4
0.4224 0.0160 0.5746 319596.0000 2 4
995.9008 2.9497 14.2750 319596.0000 99 4
-0.4937 0.0133 0.5443 319597.0000 0 6
-0.4587 0.0134 0.5446 319597.0000 1 6
0.1510 0.0152 0.5506 319597.0000 2 6
0.1890 0.0153 0.5510 319597.0000 3 6
0.4281 0.0160 0.5534 319597.0000 4 6
995.9473 2.9498 10.3394 319597.0000 99 6
-0.4227 0.0135 0.5270 319598.0000 0 4
0.4302 0.0160 0.5320 319598.0000 1 4
0.4562 0.0161 0.5322 319598.0000 2 4
995.9782 2.9499 6.4037 319598.0000 99 4
-0.0631 0.0145 0.5097 319599.0000 0 3
0.2649 0.0155 0.5104 319599.0000 1 3
995.9937 2.9500 2.4679 319599.0000 99 3
-0.2169 0.0141 0.4906 319600.0000 0 3
0.0906 0.0150 0.4900 319600.0000 1 3
995.9937 2.9500 -1.4679 319600.0000 99 3
-0.3144 0.0138 0.4724 319601.0000 0 4
-0.1331 0.0143 0.4713 319601.0000 1 4
0.4446 0.0160 0.4679 319601.0000 2 4
995.9782 2.9499 -5.4038 319601.0000 99 4
-0.4591 0.0134 0.4554 319602.0000 0 3
0.2076 0.0153 0.4488 319602.0000 1 3
995.9473 2.9498 -9.3395 319602.0000 99 3
-0.3393 0.0137 0.4359 319603.0000 0 4
-0.1531 0.0143 0.4333 319603.0000 1 4
0.0700 0.0149 0.4302 319603.0000 2 4
0.4242 0.0160 0.4253 319603.0000 3 4
-0.1737 0.0142 0.4146 319604.0000 0 3
0.2399 0.0154 0.4073 319604.0000 1 3
995.8390 2.9495 -17.2105 319604.0000 99 3
-0.4745 0.0133 0.4021 319605.0000 0 6
-0.1979 0.0142 0.3961 319605.0000 1 6
0.0690 0.0149 0.3904 319605.0000 2 6
0.1932 0.0153 0.3877 319605.0000 3 6
0.3642 0.0158 0.3840 319605.0000 4 6
995.7616 2.9493 -21.1455 319605.0000 99 6
-0.0936 0.0145 0.3746 319606.0000 0 4
-0.0423 0.0146 0.3733 319606.0000 1 4
0.1112 0.0151 0.3693 319606.0000 2 4
995.6688 2.9490 -25.0802 319606.0000 99 4
-0.4373 0.0134 0.3654 319607.0000 0 2
995.5604 2.9487 -29.0147 319607.0000 99 2
-0.3227 0.0138 0.3436 319608.0000 0 4
0.1019 0.0150 0.3294 319608.0000 1 4
0.4067 0.0159 0.3192 319608.0000 2 4
995.4366 2.9483 -32.9485 319608.0000 99 4
-0.3033 0.0138 0.3245 319609.0000 0 4
-0.2248 0.0141 0.3215 319609.0000 1 4
-0.1027 0.0144 0.3170 319609.0000 2 4
-0.0330 0.0146 0.3144 319609.0000 3 4
-0.1941 0.0142 0.3015 319610.0000 0 3
-0.0000 0.0147 0.2935 319610.0000 1 3
995.1427 2.9475 -40.8145 319610.0000 99 3
-0.4122 0.0135 0.2924 319611.0000 0 3
-0.1721 0.0142 0.2815 319611.0000 1 3
994.9725 2.9470 -44.7468 319611.0000 99 3
0.1628 0.0152 0.2461 319612.0000 0 3
0.2207 0.0154 0.2432 319612.0000 1 3
994.7869 2.9464 -48.6782 319612.0000 99 3
-0.2727 0.0139 0.2488 319613.0000 0 3
-0.1069 0.0144 0.2400 319613.0000 1 3
994.5858 2.9458 -52.6089 319613.0000 99 3
-0.2668 0.0139 0.2299 319614.0000 0 2
994.3693 2.9452 -56.5388 319614.0000 99 2
-0.4826 0.0133 0.2243 319615.0000 0 4
0.1031 0.0150 0.1886 319615.0000 1 4
0.3164 0.0157 0.1756 319615.0000 2 4
994.1372 2.9445 -60.4678 319615.0000 99 4
-0.3586 0.0137 0.1985 319616.0000 0 3
-0.0208 0.0147 0.1765 319616.0000 1 3
993.8898 2.9438 -64.3958 319616.0000 99 3
-0.3502 0.0137 0.1796 319617.0000 0 3
-0.3110 0.0138 0.1768 319617.0000 1 3
-0.2751 0.0139 0.1744 319617.0000 2 3
-0.2219 0.0141 0.1518 319618.0000 0 5
0.0960 0.0150 0.1287 319618.0000 1 5
0.2059 0.0153 0.1207 319618.0000 2 5
0.4598 0.0161 0.1021 319618.0000 3 5
993.3486 2.9422 -72.2489 319618.0000 99 5
0.1032 0.0150 0.1080 319619.0000 0 5
0.3313 0.0157 0.0904 319619.0000 1 5
0.3675 0.0158 0.0877 319619.0000 2 5
0.4452 0.0160 0.0817 319619.0000 3 5
993.0549 2.9413 -76.1737 319619.0000 99 5
-0.2017 0.0141 0.1124 319620.0000 0 3
0.2284 0.0154 0.0777 319620.0000 1 3
992.7457 2.9404 -80.0974 319620.0000 99 3
0.0689 0.0149 0.0705 319621.0000 0 3
0.1325 0.0151 0.0651 319621.0000 1 3
992.4210 2.9395 -84.0199 319621.0000 99 3
-0.2611 0.0140 0.0797 319622.0000 0 3
0.2864 0.0156 0.0311 319622.0000 1 3
992.0810 2.9385 -87.9410 319622.0000 99 3
0.1701 0.0152 0.0209 319623.0000 0 3
0.4199 0.0160 -0.0022 319623.0000 1 3
991.7255 2.9374 -91.8606 319623.0000 99 3
-0.2734 0.0139 0.0433 319624.0000 0 4
-0.1887 0.0142 0.0351 319624.0000 1 4
-0.0668 0.0145 0.0233 319624.0000 2 4
991.3547 2.9363 -95.7789 319624.0000 99 4
990.9684 2.9352 -99.6958 319625.0000 99 1
990.5668 2.9340 -103.6111 319626.0000 99 1
990.1497 2.9328 -107.5247 319627.0000 99 1
-0.4939 -0.0044 0.9891 320372.0000 0 2
990.1536 -0.9777 108.5248 320372.0000 99 2
990.5707 -0.9781 104.6110 320373.0000 99 1
-0.3881 -0.0045 0.9640 320374.0000 0 4
-0.2435 -0.0047 0.9785 320374.0000 1 4
-0.1401 -0.0048 0.9889 320374.0000 2 4
990.9724 -0.9785 100.6957 320374.0000 99 4
-0.4558 -0.0045 0.9391 320375.0000 0 4
-0.0653 -0.0048 0.9768 320375.0000 1 4
-0.0150 -0.0049 0.9817 320375.0000 2 4
991.3586 -0.9789 96.7789 320375.0000 99 4
-0.1202 -0.0048 0.9522 320376.0000 0 2
991.7295 -0.9792 92.8605 320376.0000 99 2
-0.2779 -0.0046 0.9188 320377.0000 0 2
992.0849 -0.9796 88.9408 320377.0000 99 2
-0.3740 -0.0045 0.8920 320378.0000 0 3
-0.0673 -0.0048 0.9180 320378.0000 1 3
992.4249 -0.9799 85.0197 320378.0000 99 3
-0.0999 -0.0048 0.8958 320379.0000 0 5
-0.0577 -0.0049 0.8992 320379.0000 1 5
0.1732 -0.0051 0.9179 320379.0000 2 5
0.3681 -0.0053 0.9336 320379.0000 3 5
992.7496 -0.9802 81.0972 320379.0000 99 5
-0.4122 -0.0045 0.8524 320380.0000 0 4
-0.1625 -0.0048 0.8716 320380.0000 1 4
0.0435 -0.0050 0.8875 320380.0000 2 4
993.0587 -0.9805 77.1735 320380.0000 99 4
-0.2248 -0.0047 0.8480 320381.0000 0 4
0.2194 -0.0051 0.8803 320381.0000 1 4
0.4193 -0.0053 0.8949 320381.0000 2 4
993.3525 -0.9808 73.2488 320381.0000 99 4
-0.4893 -0.0044 0.8109 320382.0000 0 4
-0.4608 -0.0045 0.8128 320382.0000 1 4
0.0180 -0.0049 0.8458 320382.0000 2 4
993.6308 -0.9811 69.3229 320382.0000 99 4
-0.4451 -0.0045 0.7959 320383.0000 0 4
0.1542 -0.0051 0.8349 320383.0000 1 4
0.2253 -0.0051 0.8395 320383.0000 2 4
0.4904 -0.0054 0.8567 320383.0000 3 4
-0.0655 -0.0048 0.8011 320384.0000 0 2
994.1411 -0.9816 61.4677 320384.0000 99 2
0.1455 -0.0051 0.7937 320385.0000 0 4
0.1566 -0.0051 0.7943 320385.0000 1 4
0.4314 -0.0053 0.8100 320385.0000 2 4
994.3731 -0.9818 57.5387 320385.0000 99 4
-0.4029 -0.0045 0.7442 320386.0000 0 3
-0.3435 -0.0046 0.7474 320386.0000 1 3
-0.0912 -0.0048 0.7608 320386.0000 2 3
0.0668 -0.0050 0.7492 320387.0000 0 2
994.7908 -0.9822 49.6781 320387.0000 99 2
-0.3239 -0.0046 0.7116 320388.0000 0 4
0.3264 -0.0052 0.7410 320388.0000 1 4
0.4493 -0.0054 0.7466 320388.0000 2 4
994.9764 -0.9824 45.7467 320388.0000 99 4
0.0568 -0.0050 0.7089 320389.0000 0 4
0.2147 -0.0051 0.7154 320389.0000 1 4
0.4609 -0.0054 0.7256 320389.0000 2 4
995.1465 -0.9826 41.8145 320389.0000 99 4
-0.2194 -0.0047 0.6787 320390.0000 0 4
0.2749 -0.0052 0.6971 320390.0000 1 4
0.3280 -0.0052 0.6991 320390.0000 2 4
0.4341 -0.0053 0.7031 320390.0000 3 4
-0.0679 -0.0048 0.6649 320391.0000 0 3
0.0495 -0.0050 0.6688 320391.0000 1 3
995.4406 -0.9829 33.9483 320391.0000 99 3
-0.1178 -0.0048 0.6440 320392.0000 0 3
0.1128 -0.0050 0.6508 320392.0000 1 3
995.5643 -0.9830 30.0144 320392.0000 99 3
-0.3038 -0.0046 0.6200 320393.0000 0 4
-0.2332 -0.0047 0.6219 320393.0000 1 4
-0.0734 -0.0048 0.6259 320393.0000 2 4
995.6726 -0.9831 26.0800 320393.0000 99 4
-0.3998 -0.0045 0.5995 320394.0000 0 3
0.1865 -0.0051 0.6122 320394.0000 1 3
995.7654 -0.9832 22.1453 320394.0000 99 3
995.8428 -0.9833 18.2104 320395.0000 99 1
-0.3892 -0.0045 0.5635 320396.0000 0 5
-0.3129 -0.0046 0.5645 320396.0000 1 5
-0.1464 -0.0048 0.5668 320396.0000 2 5
-0.0636 -0.0048 0.5679 320396.0000 3 5
995.9047 -0.9833 14.2750 320396.0000 99 5
-0.2312 -0.0047 0.5469 320397.0000 0 5
-0.1359 -0.0048 0.5478 320397.0000 1 5
-0.0872 -0.0048 0.5483 320397.0000 2 5
-0.0518 -0.0049 0.5486 320397.0000 3 5
995.9511 -0.9834 10.3394 320397.0000 99 5
-0.1109 -0.0048 0.5288 320398.0000 0 4
0.0308 -0.0049 0.5297 320398.0000 1 4
0.1729 -0.0051 0.5305 320398.0000 2 4
995.9821 -0.9834 6.4037 320398.0000 99 4
-0.4397 -0.0045 0.5090 320399.0000 0 4
0.0584 -0.0050 0.5099 320399.0000 1 4
0.2382 -0.0051 0.5103 320399.0000 2 4
995.9976 -0.9834 2.4679 320399.0000 99 4
-0.4373 -0.0045 0.4910 320400.0000 0 4
-0.3892 -0.0045 0.4909 320400.0000 1 4
-0.3303 -0.0046 0.4908 320400.0000 2 4
0.4368 -0.0053 0.4893 320400.0000 3 4
-0.4640 -0.0045 0.4732 320401.0000 0 3
0.2021 -0.0051 0.4693 320401.0000 1 3
995.9821 -0.9834 -5.4038 320401.0000 99 3
0.1580 -0.0051 0.4493 320402.0000 0 2
995.9511 -0.9834 -9.3395 320402.0000 99 2
-0.4756 -0.0044 0.4377 320403.0000 0 4
-0.1915 -0.0047 0.4338 320403.0000 1 4
0.3108 -0.0052 0.4269 320403.0000 2 4
995.9047 -0.9833 -13.2750 320403.0000 99 4
-0.4682 -0.0045 0.4198 320404.0000 0 4
-0.0033 -0.0049 0.4116 320404.0000 1 4
0.2461 -0.0052 0.4072 320404.0000 2 4
995.8428 -0.9833 -17.2105 320404.0000 99 4
-0.1205 -0.0048 0.3945 320405.0000 0 4
-0.0984 -0.0048 0.3940 320405.0000 1 4
-0.0105 -0.0049 0.3921 320405.0000 2 4
995.7654 -0.9832 -21.1455 320405.0000 99 4
-0.4416 -0.0045 0.3835 320406.0000 0 5
-0.0709 -0.0048 0.3740 320406.0000 1 5
0.0181 -0.0049 0.3717 320406.0000 2 5
0.3004 -0.0052 0.3645 320406.0000 3 5
995.6726 -0.9831 -25.0802 320406.0000 99 5
-0.4849 -0.0044 0.3668 320407.0000 0 7
-0.3402 -0.0046 0.3625 320407.0000 1 7
-0.1225 -0.0048 0.3561 320407.0000 2 7
-0.0691 -0.0048 0.3545 320407.0000 3 7
0.3901 -0.0053 0.3410 320407.0000 4 7
0.4992 -0.0054 0.3378 320407.0000 5 7
995.5643 -0.9830 -29.0147 320407.0000 99 7
-0.4609 -0.0045 0.3482 320408.0000 0 5
-0.0648 -0.0048 0.3350 320408.0000 1 5
0.0355 -0.0049 0.3316 320408.0000 2 5
0.2886 -0.0052 0.3232 320408.0000 3 5
995.4406 -0.9829 -32.9485 320408.0000 99 5
-0.2499 -0.0047 0.3225 320409.0000 0 3
0.4271 -0.0053 0.2972 320409.0000 1 3
995.3013 -0.9827 -36.8817 320409.0000 99 3
-0.4584 -0.0045 0.3124 320410.0000 0 4
-0.4057 -0.0045 0.3102 320410.0000 1 4
-0.3574 -0.0046 0.3082 320410.0000 2 4
0.3963 -0.0053 0.2771 320410.0000 3 4
-0.1441 -0.0048 0.2803 320411.0000 0 3
0.1129 -0.0050 0.2687 320411.0000 1 3
994.9764 -0.9824 -44.7468 320411.0000 99 3
-0.4245 -0.0045 0.2749 320412.0000 0 4
-0.3537 -0.0046 0.2715 320412.0000 1 4
-0.0529 -0.0049 0.2567 320412.0000 2 4
994.7907 -0.9822 -48.6782 320412.0000 99 4
-0.3031 -0.0046 0.2504 320413.0000 0 2
994.5897 -0.9820 -52.6089 320413.0000 99 2
0.0202 -0.0049 0.2135 320414.0000 0 3
0.1849 -0.0051 0.2041 320414.0000 1 3
994.3731 -0.9818 -56.5388 320414.0000 99 3
-0.1646 -0.0048 0.2049 320415.0000 0 3
0.0738 -0.0050 0.1904 320415.0000 1 3
994.1411 -0.9816 -60.4678 320415.0000 99 3
-0.2068 -0.0047 0.1886 320416.0000 0 3
-0.1667 -0.0047 0.1860 320416.0000 1 3
0.3782 -0.0053 0.1506 320416.0000 2 3
-0.3345 -0.0046 0.1785 320417.0000 0 3
0.2832 -0.0052 0.1359 320417.0000 1 3
993.6308 -0.9811 -68.3228 320417.0000 99 3
-0.4772 -0.0044 0.1704 320418.0000 0 3
-0.2045 -0.0047 0.1506 320418.0000 1 3
0.0762 -0.0050 0.1301 320418.0000 2 3
0.2899 -0.0052 0.0936 320419.0000 0 3
0.3286 -0.0052 0.0906 320419.0000 1 3
0.4253 -0.0053 0.0832 320419.0000 2 3
0.1401 -0.0050 0.0848 320420.0000 0 2
992.7496 -0.9802 -80.0974 320420.0000 99 2
-0.3192 -0.0046 0.1034 320421.0000 0 3
-0.1650 -0.0048 0.0903 320421.0000 1 3
992.4249 -0.9799 -84.0199 320421.0000 99 3
0.3153 -0.0052 0.0285 320422.0000 0 2
992.0849 -0.9796 -87.9410 320422.0000 99 2
-0.0228 -0.0049 0.0388 320423.0000 0 2
991.7294 -0.9792 -91.8606 320423.0000 99 2
-0.4439 -0.0045 0.0597 320424.0000 0 3
0.0020 -0.0049 0.0167 320424.0000 1 3
991.3586 -0.9789 -95.7789 320424.0000 99 3
990.9724 -0.9785 -99.6958 320425.0000 99 1
-0.2461 -0.0047 0.0029 320426.0000 0 2
990.5707 -0.9781 -103.6111 320426.0000 99 2
990.1536 -0.9777 -107.5247 320427.0000 99 1
990.1421 -4.8880 108.5248 321172.0000 99 1
-0.4900 -0.0222 0.9716 321173.0000 0 4
-0.4791 -0.0222 0.9728 321173.0000 1 4
-0.2452 -0.0234 0.9972 321173.0000 2 4
990.5591 -4.8901 104.6110 321173.0000 99 4
-0.2737 -0.0232 0.9755 321174.0000 0 3
-0.1213 -0.0240 0.9908 321174.0000 1 3
990.9608 -4.8920 100.6957 321174.0000 99 3
-0.4311 -0.0224 0.9415 321175.0000 0 3
-0.3343 -0.0229 0.9509 321175.0000 1 3
991.3471 -4.8939 96.7789 321175.0000 99 3
-0.4908 -0.0221 0.9178 321176.0000 0 4
-0.3991 -0.0226 0.9263 321176.0000 1 4
0.2266 -0.0257 0.9843 321176.0000 2 4
991.7180 -4.8957 92.8605 321176.0000 99 4
-0.2908 -0.0231 0.9177 321177.0000 0 5
-0.0159 -0.0245 0.9421 321177.0000 1 5
0.0457 -0.0248 0.9476 321177.0000 2 5
0.4204 -0.0266 0.9808 321177.0000 3 5
992.0734 -4.8975 88.9408 321177.0000 99 5
-0.1692 -0.0237 0.9094 321178.0000 0 2
992.4134 -4.8992 85.0197 321178.0000 99 2
-0.0498 -0.0243 0.8999 321179.0000 0 2
992.7380 -4.9008 81.0972 321179.0000 99 2
-0.0847 -0.0241 0.8776 321180.0000 0 4
-0.0244 -0.0244 0.8822 321180.0000 1 4
0.4872 -0.0270 0.9215 321180.0000 2 4
993.0472 -4.9023 77.1735 321180.0000 99 4
0.3467 -0.0263 0.8896 321181.0000 0 2
993.3409 -4.9037 73.2488 321181.0000 99 2
-0.2084 -0.0235 0.8302 321182.0000 0 3
0.0567 -0.0248 0.8485 321182.0000 1 3
993.6192 -4.9051 69.3229 321182.0000 99 3
-0.0220 -0.0245 0.8234 321183.0000 0 4
0.0714 -0.0249 0.8295 321183.0000 1 4
0.4886 -0.0270 0.8566 321183.0000 2 4
993.8821 -4.9064 65.3957 321183.0000 99 4
0.2352 -0.0257 0.8195 321184.0000 0 2
994.1295 -4.9076 61.4677 321184.0000 99 2
-0.3099 -0.0230 0.7677 321185.0000 0 3
0.1689 -0.0254 0.7950 321185.0000 1 3
994.3616 -4.9087 57.5387 321185.0000 99 3
0.0545 -0.0248 0.7686 321186.0000 0 4
0.3555 -0.0263 0.7845 321186.0000 1 4
0.3880 -0.0265 0.7863 321186.0000 2 4
0.4115 -0.0266 0.7875 321186.0000 3 4
-0.2196 -0.0235 0.7351 321187.0000 0 3
0.4199 -0.0266 0.7666 321187.0000 1 3
994.7792 -4.9108 49.6781 321187.0000 99 3
0.2264 -0.0257 0.7365 321188.0000 0 2
994.9648 -4.9117 45.7467 321188.0000 99 2
-0.0996 -0.0241 0.7024 321189.0000 0 3
0.0667 -0.0249 0.7093 321189.0000 1 3
0.2865 -0.0260 0.7184 321189.0000 2 3
-0.3769 -0.0227 0.6728 321190.0000 0 3
-0.0255 -0.0244 0.6859 321190.0000 1 3
995.2897 -4.9133 37.8817 321190.0000 99 3
-0.3370 -0.0229 0.6559 321191.0000 0 3
0.0844 -0.0250 0.6700 321191.0000 1 3
995.4290 -4.9140 33.9483 321191.0000 99 3
-0.4396 -0.0224 0.6345 321192.0000 0 5
-0.3174 -0.0230 0.6381 321192.0000 1 5
-0.0298 -0.0244 0.6466 321192.0000 2 5
0.3045 -0.0261 0.6565 321192.0000 3 5
995.5527 -4.9146 30.0144 321192.0000 99 5
-0.2468 -0.0233 0.6215 321193.0000 0 4
-0.2161 -0.0235 0.6223 321193.0000 1 4
0.3828 -0.0264 0.6376 321193.0000 2 4
995.6611 -4.9151 26.0800 321193.0000 99 4
-0.4203 -0.0225 0.5991 321194.0000 0 5
-0.0567 -0.0243 0.6069 321194.0000 1 5
0.3784 -0.0264 0.6163 321194.0000 2 5
0.4592 -0.0268 0.6181 321194.0000 3 5
995.7539 -4.9156 22.1453 321194.0000 99 5
-0.4869 -0.0222 0.5799 321195.0000 0 4
-0.1453 -0.0238 0.5859 321195.0000 1 4
0.4293 -0.0267 0.5961 321195.0000 2 4
995.8313 -4.9159 18.2104 321195.0000 99 4
-0.2607 -0.0233 0.5652 321196.0000 0 3
-0.0874 -0.0241 0.5676 321196.0000 1 3
995.8931 -4.9163 14.2750 321196.0000 99 3
995.9396 -4.9165 10.3394 321197.0000 99 1
-0.4876 -0.0222 0.5266 321198.0000 0 7
-0.4597 -0.0223 0.5268 321198.0000 1 7
-0.4262 -0.0225 0.5270 321198.0000 2 7
-0.2460 -0.0234 0.5280 321198.0000 3 7
-0.1897 -0.0236 0.5284 321198.0000 4 7
-0.0819 -0.0242 0.5290 321198.0000 5 7
995.9705 -4.9166 6.4037 321198.0000 99 7
0.3434 -0.0262 0.5105 321199.0000 0 2
995.9860 -4.9167 2.4679 321199.0000 99 2
-0.2019 -0.0236 0.4906 321200.0000 0 2
995.9860 -4.9167 -1.4679 321200.0000 99 2
-0.2643 -0.0233 0.4721 321201.0000 0 4
0.2021 -0.0256 0.4693 321201.0000 1 4
0.2513 -0.0258 0.4690 321201.0000 2 4
995.9705 -4.9166 -5.4038 321201.0000 99 4
995.9396 -4.9165 -9.3395 321202.0000 99 1
-0.1402 -0.0239 0.4331 321203.0000 0 3
0.0044 -0.0246 0.4311 321203.0000 1 3
995.8931 -4.9163 -13.2750 321203.0000 99 3
-0.2993 -0.0231 0.4168 321204.0000 0 3
0.4071 -0.0266 0.4043 321204.0000 1 3
995.8313 -4.9159 -17.2105 321204.0000 99 3
-0.2928 -0.0231 0.3982 321205.0000 0 3
0.0055 -0.0246 0.3917 321205.0000 1 3
995.7539 -4.9156 -21.1455 321205.0000 99 3
0.2269 -0.0257 0.3664 321206.0000 0 2
995.6611 -4.9151 -25.0802 321206.0000 99 2
-0.3766 -0.0227 0.3636 321207.0000 0 4
-0.2043 -0.0236 0.3585 321207.0000 1 4
-0.1289 -0.0239 0.3563 321207.0000 2 4
995.5527 -4.9146 -29.0147 321207.0000 99 4
0.3717 -0.0264 0.3204 321208.0000 0 2
995.4290 -4.9140 -32.9485 321208.0000 99 2
-0.3958 -0.0226 0.3279 321209.0000 0 2
995.2897 -4.9133 -36.8817 321209.0000 99 2
-0.4487 -0.0224 0.3120 321210.0000 0 5
-0.3810 -0.0227 0.3092 321210.0000 1 5
-0.0873 -0.0241 0.2971 321210.0000 2 5
0.4896 -0.0270 0.2732 321210.0000 3 5
995.1350 -4.9125 -40.8145 321210.0000 99 5
-0.3675 -0.0228 0.2904 321211.0000 0 4
-0.0961 -0.0241 0.2781 321211.0000 1 4
-0.0382 -0.0244 0.2755 321211.0000 2 4
994.9648 -4.9117 -44.7468 321211.0000 99 4
-0.4210 -0.0225 0.2748 321212.0000 0 3
-0.1109 -0.0240 0.2595 321212.0000 1 3
994.7792 -4.9108 -48.6782 321212.0000 99 3
-0.4516 -0.0223 0.2583 321213.0000 0 4
-0.3696 -0.0227 0.2540 321213.0000 1 4
-0.3151 -0.0230 0.2511 321213.0000 2 4
0.3731 -0.0264 0.2145 321213.0000 3 4
-0.1013 -0.0241 0.2204 321214.0000 0 4
0.2367 -0.0257 0.2011 321214.0000 1 4
0.4218 -0.0266 0.1906 321214.0000 2 4
994.3616 -4.9087 -56.5388 321214.0000 99 4
-0.4318 -0.0224 0.2212 321215.0000 0 5
-0.3981 -0.0226 0.2192 321215.0000 1 5
-0.3518 -0.0228 0.2164 321215.0000 2 5
-0.1877 -0.0236 0.2063 321215.0000 3 5
994.1295 -4.9076 -60.4678 321215.0000 99 5
-0.4849 -0.0222 0.2067 321216.0000 0 4
-0.4305 -0.0224 0.2031 321216.0000 1 4
0.3321 -0.0262 0.1536 321216.0000 2 4
993.8821 -4.9064 -64.3958 321216.0000 99 4
-0.2201 -0.0235 0.1706 321217.0000 0 3
-0.1312 -0.0239 0.1645 321217.0000 1 3
993.6192 -4.9051 -68.3228 321217.0000 99 3
-0.1134 -0.0240 0.1439 321218.0000 0 3
0.0193 -0.0247 0.1342 321218.0000 1 3
0.0925 -0.0250 0.1289 321218.0000 2 3
-0.3106 -0.0230 0.1397 321219.0000 0 2
993.0472 -4.9023 -76.1737 321219.0000 99 2
-0.1126 -0.0240 0.1052 321220.0000 0 4
-0.0637 -0.0242 0.1012 321220.0000 1 4
0.1047 -0.0251 0.0876 321220.0000 2 4
992.7380 -4.9008 -80.0974 321220.0000 99 4
0.2025 -0.0256 0.0591 321221.0000 0 2
992.4134 -4.8992 -84.0199 321221.0000 99 2
-0.4436 -0.0224 0.0958 321222.0000 0 5
-0.1260 -0.0239 0.0677 321222.0000 1 5
-0.0877 -0.0241 0.0643 321222.0000 2 5
0.3984 -0.0265 0.0212 321222.0000 3 5
992.0734 -4.8975 -87.9410 321222.0000 99 5
-0.3594 -0.0228 0.0700 321223.0000 0 4
-0.0327 -0.0244 0.0397 321223.0000 1 4
0.2519 -0.0258 0.0133 321223.0000 2 4
991.7179 -4.8957 -91.8606 321223.0000 99 4
-0.2592 -0.0233 0.0419 321224.0000 0 3
0.0533 -0.0248 0.0117 321224.0000 1 3
991.3471 -4.8939 -95.7789 321224.0000 99 3
-0.4297 -0.0224 0.0402 321225.0000 0 2
990.9608 -4.8920 -99.6958 321225.0000 99 2
-0.3897 -0.0226 0.0179 321226.0000 0 2
990.5591 -4.8901 -103.6111 321226.0000 99 2
990.1421 -4.8880 -107.5247 321227.0000 99 1
990.1152 -8.7984 108.5248 321972.0000 99 1
-0.4767 -0.0400 0.9730 321973.0000 0 3
-0.2962 -0.0416 0.9919 321973.0000 1 3
990.5322 -8.8020 104.6110 321973.0000 99 3
990.9338 -8.8056 100.6957 321974.0000 99 1
0.1078 -0.0452 0.9936 321975.0000 0 3
0.1747 -0.0458 1.0001 321975.0000 1 3
991.3201 -8.8090 96.7789 321975.0000 99 3
991.6910 -8.8123 92.8605 321976.0000 99 1
-0.3509 -0.0411 0.9124 321977.0000 0 5
-0.1523 -0.0429 0.9300 321977.0000 1 5
0.1708 -0.0457 0.9587 321977.0000 2 5
0.2301 -0.0462 0.9639 321977.0000 3 5
992.0464 -8.8154 88.9408 321977.0000 99 5
-0.3644 -0.0410 0.8928 321978.0000 0 2
-0.2737 -0.0418 0.9005 321978.0000 1 2
-0.4117 -0.0406 0.8707 321979.0000 0 3
-0.3832 -0.0408 0.8730 321979.0000 1 3
992.7110 -8.8213 81.0972 321979.0000 99 3
-0.4737 -0.0400 0.8477 321980.0000 0 3
0.1822 -0.0458 0.8981 321980.0000 1 3
993.0202 -8.8240 77.1735 321980.0000 99 3
-0.1953 -0.0425 0.8501 321981.0000 0 5
-0.1414 -0.0430 0.8541 321981.0000 1 5
-0.0215 -0.0440 0.8628 321981.0000 2 5
0.4922 -0.0486 0.9002 321981.0000 3 5
993.3139 -8.8266 73.2488 321981.0000 99 5
0.2823 -0.0467 0.8641 321982.0000 0 3
0.3201 -0.0470 0.8667 321982.0000 1 3
993.5922 -8.8291 69.3229 321982.0000 99 3
-0.4182 -0.0405 0.7977 321983.0000 0 3
-0.2450 -0.0420 0.8089 321983.0000 1 3
-0.1213 -0.0431 0.8170 321983.0000 2 3
-0.4396 -0.0403 0.7783 321984.0000 0 4
-0.3638 -0.0410 0.7829 321984.0000 1 4
0.0345 -0.0445 0.8072 321984.0000 2 4
994.1025 -8.8336 61.4677 321984.0000 99 4
-0.4386 -0.0403 0.7603 321985.0000 0 3
-0.2504 -0.0420 0.7711 321985.0000 1 3
0.0992 -0.0451 0.7910 321985.0000 2 3
-0.4496 -0.0402 0.7418 321986.0000 0 4
-0.3781 -0.0409 0.7456 321986.0000 1 4
0.3145 -0.0470 0.7824 321986.0000 2 4
994.5510 -8.8376 53.6089 321986.0000 99 4
-0.3102 -0.0415 0.7307 321987.0000 0 3
-0.0633 -0.0436 0.7428 321987.0000 1 3
994.7522 -8.8394 49.6781 321987.0000 99 3
0.1998 -0.0460 0.7353 321988.0000 0 3
0.4987 -0.0486 0.7488 321988.0000 1 3
994.9378 -8.8410 45.7467 321988.0000 99 3
0.4101 -0.0478 0.7235 321989.0000 0 2
995.1080 -8.8425 41.8145 321989.0000 99 2
0.2402 -0.0463 0.6958 321990.0000 0 3
0.4159 -0.0479 0.7024 321990.0000 1 3
995.2626 -8.8439 37.8817 321990.0000 99 3
0.1435 -0.0455 0.6720 321991.0000 0 2
995.4019 -8.8451 33.9483 321991.0000 99 2
-0.4722 -0.0400 0.6336 321992.0000 0 5
-0.2115 -0.0423 0.6413 321992.0000 1 5
0.0318 -0.0445 0.6484 321992.0000 2 5
0.3980 -0.0477 0.6592 321992.0000 3 5
995.5257 -8.8462 30.0144 321992.0000 99 5
-0.2435 -0.0421 0.6216 321993.0000 0 5
-0.2117 -0.0423 0.6224 321993.0000 1 5
0.0387 -0.0445 0.6288 321993.0000 2 5
0.1803 -0.0458 0.6324 321993.0000 3 5
995.6340 -8.8472 26.0800 321993.0000 99 5
-0.2435 -0.0421 0.6029 321994.0000 0 4
0.1118 -0.0452 0.6106 321994.0000 1 4
0.3589 -0.0474 0.6159 321994.0000 2 4
995.7268 -8.8480 22.1453 321994.0000 99 4
-0.0108 -0.0441 0.5883 321995.0000 0 3
0.0378 -0.0445 0.5891 321995.0000 1 3
995.8042 -8.8487 18.2104 321995.0000 99 3
0.1902 -0.0459 0.5714 321996.0000 0 2
995.8660 -8.8492 14.2750 321996.0000 99 2
-0.1782 -0.0426 0.5474 321997.0000 0 3
0.0672 -0.0448 0.5498 321997.0000 1 3
995.9125 -8.8496 10.3394 321997.0000 99 3
0.2315 -0.0463 0.5309 321998.0000 0 3
0.4181 -0.0479 0.5320 321998.0000 1 3
995.9434 -8.8499 6.4037 321998.0000 99 3
-0.4047 -0.0406 0.5090 321999.0000 0 2
0.2684 -0.0466 0.5104 321999.0000 1 2
-0.3052 -0.0415 0.4908 322000.0000 0 3
0.3504 -0.0473 0.4895 322000.0000 1 3
995.9589 -8.8500 -1.4679 322000.0000 99 3
-0.4377 -0.0403 0.4731 322001.0000 0 3
0.4278 -0.0480 0.4680 322001.0000 1 3
995.9434 -8.8499 -5.4038 322001.0000 99 3
-0.3849 -0.0408 0.4546 322002.0000 0 3
-0.2918 -0.0416 0.4537 322002.0000 1 3
0.1032 -0.0451 0.4498 322002.0000 2 3
-0.1259 -0.0431 0.4329 322003.0000 0 2
995.8660 -8.8492 -13.2750 322003.0000 99 2
-0.4233 -0.0405 0.4190 322004.0000 0 3
0.1219 -0.0453 0.4094 322004.0000 1 3
995.8042 -8.8487 -17.2105 322004.0000 99 3
-0.4339 -0.0404 0.4012 322005.0000 0 5
-0.3592 -0.0410 0.3996 322005.0000 1 5
-0.3145 -0.0414 0.3987 322005.0000 2 5
-0.0029 -0.0442 0.3919 322005.0000 3 5
995.7268 -8.8480 -21.1455 322005.0000 99 5
-0.1998 -0.0424 0.3773 322006.0000 0 3
-0.1597 -0.0428 0.3763 322006.0000 1 3
0.1719 -0.0457 0.3678 322006.0000 2 3
-0.4980 -0.0398 0.3672 322007.0000 0 5
-0.3711 -0.0409 0.3635 322007.0000 1 5
-0.2674 -0.0418 0.3604 322007.0000 2 5
0.3040 -0.0469 0.3435 322007.0000 3 5
995.5257 -8.8462 -29.0147 322007.0000 99 5
-0.3512 -0.0411 0.3446 322008.0000 0 4
-0.2590 -0.0419 0.3415 322008.0000 1 4
0.1920 -0.0459 0.3264 322008.0000 2 4
995.4019 -8.8451 -32.9485 322008.0000 99 4
-0.2274 -0.0422 0.3216 322009.0000 0 4
-0.1921 -0.0425 0.3203 322009.0000 1 4
-0.0863 -0.0434 0.3164 322009.0000 2 4
995.2626 -8.8439 -36.8817 322009.0000 99 4
-0.4668 -0.0401 0.3127 322010.0000 0 5
-0.2797 -0.0417 0.3050 322010.0000 1 5
-0.1690 -0.0427 0.3004 322010.0000 2 5
0.4342 -0.0480 0.2755 322010.0000 3 5
995.1080 -8.8425 -40.8145 322010.0000 99 5
0.1175 -0.0452 0.2684 322011.0000 0 3
0.3346 -0.0472 0.2586 322011.0000 1 3
994.9378 -8.8410 -44.7468 322011.0000 99 3
-0.0937 -0.0434 0.2587 322012.0000 0 4
0.0921 -0.0450 0.2495 322012.0000 1 4
0.1340 -0.0454 0.2475 322012.0000 2 4
994.7521 -8.8394 -48.6782 322012.0000 99 4
-0.2832 -0.0417 0.2494 322013.0000 0 3
0.3606 -0.0474 0.2152 322013.0000 1 3
994.5510 -8.8376 -52.6089 322013.0000 99 3
-0.4198 -0.0405 0.2386 322014.0000 0 5
-0.1890 -0.0425 0.2254 322014.0000 1 5
0.3445 -0.0473 0.1950 322014.0000 2 5
0.4898 -0.0485 0.1867 322014.0000 3 5
994.3345 -8.8357 -56.5388 322014.0000 99 5
0.2647 -0.0465 0.1787 322015.0000 0 2
994.1025 -8.8336 -60.4678 322015.0000 99 2
-0.3207 -0.0414 0.1960 322016.0000 0 5
-0.1889 -0.0425 0.1874 322016.0000 1 5
-0.0657 -0.0436 0.1794 322016.0000 2 5
0.1879 -0.0459 0.1629 322016.0000 3 5
993.8550 -8.8314 -64.3958 322016.0000 99 5
0.1656 -0.0457 0.1440 322017.0000 0 4
0.3054 -0.0469 0.1344 322017.0000 1 4
